# .PCD v0.7 - Point Cloud Data file format
VERSION 0.7
FIELDS x y z
SIZE 4 4 4
TYPE F F F
COUNT 1 1 1
WIDTH 1522
HEIGHT 1
VIEWPOINT 0 0 0 1 0 0 0
POINTS 1522
DATA ascii
-3.7175868 0.85485625 -1.5933386
-13.605173 3.1284993 -0.32411557
-3.9053948 0.8980426 -1.5648053
-22.222055 5.109945 0.0
-4.214477 0.96911585 -1.5739766
-4.3468137 0.9995465 -1.5071107
-4.4041615 1.0127336 -1.4101391
-4.5041966 1.0357366 -1.3252645
-5.620948 1.2925327 -1.5098852
-5.8036547 1.334546 -1.4110229
-6.5985312 1.5173272 -1.4391649
-6.612069 1.5204402 -1.2782902
-2.6102784 0.6079114 -1.5894488
-2.7697327 0.64504695 -1.597855
-2.927218 0.6817239 -1.5980812
-3.096584 0.7211678 -1.5970125
-9.132874 2.1269677 -0.8748563
-3.2729585 0.7622439 -1.5906764
-10.586162 2.465426 -0.76006657
-3.4842029 0.8114409 -1.5927807
-14.55038 3.3886583 -0.69670177
-3.6954136 0.86063004 -1.5848591
-13.950802 3.2490218 -0.3325643
-3.9409752 0.91781926 -1.5800824
-21.9759 5.1179986 0.0
-4.219076 0.9825865 -1.5767128
-4.1557775 0.96784484 -1.4418069
-4.1577277 0.9682991 -1.3320959
-5.6625414 1.3187572 -1.5220412
-6.020771 1.4021858 -1.314002
-6.634596 1.5451404 -1.2834743
-2.6068964 0.61480236 -1.5884286
-2.766224 0.65237767 -1.5968753
-2.9235845 0.68948907 -1.5971423
-8.464527 1.9962478 -1.0170156
-3.0980377 0.73063153 -1.5988079
-8.320616 1.962308 -0.7975702
-3.2708175 0.7713794 -1.5906764
-10.60448 2.5009277 -0.7618802
-3.4765885 0.81990784 -1.5903403
-14.173355 3.3425999 -0.6790933
-3.6696458 0.8654378 -1.5748382
-22.284494 5.255506 -0.53157365
-3.8785598 0.9147075 -1.5560756
-21.994617 5.1871424 0.0
-4.1943655 0.98918617 -1.5685045
-4.1217084 0.9720509 -1.430923
-4.4040117 1.0386285 -1.4119264
-5.435809 1.2819643 -1.6014532
-4.299209 1.0139122 -1.1563461
-5.33962 1.2592794 -1.2998933
-2.608298 0.62379014 -1.590469
-2.7658563 0.6614711 -1.597855
-2.926556 0.6999034 -1.5999593
-8.2399 1.9706213 -0.9907656
-3.0974648 0.74077725 -1.5997056
-3.2631035 0.78039074 -1.5881095
-13.92049 3.3291686 -1.0008659
-3.4775496 0.83167684 -1.5919673
-3.7117803 0.8876945 -1.5941094
-22.254261 5.32224 -0.5312487
-3.8448644 0.91952235 -1.5437086
-21.95487 5.250639 0.0
-4.233278 1.0124137 -1.5842373
-4.1591754 0.9946917 -1.4450082
-5.216394 1.2475319 -1.2708428
-6.632605 1.5862272 -1.4495604
-7.3478627 1.7572854 -1.4234494
-2.603312 0.62980705 -1.5884286
-2.7624204 0.66829944 -1.5968753
-8.271743 2.001144 -1.1960537
-2.9195647 0.70631653 -1.5971423
-8.132381 1.9674289 -0.9784536
-3.093778 0.74846315 -1.5988079
-9.13177 2.209206 -0.87652844
-3.2645633 0.78978044 -1.5898207
-14.061044 3.4017222 -1.0116084
-3.4735844 0.84034795 -1.5911539
-3.720206 0.90001196 -1.5987345
-22.65225 5.4801526 -0.5410901
-3.9040098 0.94447875 -1.5684427
-22.160713 5.361237 0.0
-4.1995587 1.0159795 -1.5726086
-4.1086745 0.9939923 -1.428362
-4.602081 1.1133598 -1.4774587
-3.9171884 0.947667 -1.0550456
-5.5195417 1.3353168 -1.345544
-6.6569514 1.610485 -1.4557978
-7.0012918 1.6937896 -1.357165
-2.6047735 0.63834757 -1.590469
-2.7553449 0.6752478 -1.5939362
-2.9174562 0.71497613 -1.5971423
-3.0898075 0.757214 -1.5979103
-7.964703 1.9518965 -0.76505804
-3.2639613 0.79989356 -1.5906764
-13.932685 3.41446 -1.0030981
-3.4763994 0.8519555 -1.5935943
-3.4468608 0.8447165 -1.4823368
-22.68056 5.558287 -0.5421578
-3.8740485 0.9494066 -1.5575305
-22.218523 5.445057 0.0
-4.065099 0.996227 -1.5233576
-4.151715 1.0174539 -1.4443678
-4.3113346 1.0565717 -1.3851177
-5.25636 1.2881675 -1.5518384
-4.2755947 1.0478129 -1.0430502
-7.143223 1.7505777 -1.3856783
-2.6011987 0.64565897 -1.5894488
-2.7482524 0.6821601 -1.5909972
-8.009835 1.9881687 -1.1598687
-2.9153218 0.72362936 -1.5971423
-8.0762205 2.0046468 -0.9731106
-3.0875473 0.76637846 -1.5979103
-3.2650826 0.81044555 -1.5923878
-3.4685366 0.86094606 -1.5911539
-14.751836 3.6616406 -0.7088135
-3.6270344 0.90028775 -1.560963
-16.089302 3.993621 -0.38488144
-3.849517 0.9555115 -1.5488008
-22.25662 5.524448 0.0
-4.1806874 1.0377133 -1.5678203
-4.2498198 1.0548731 -1.4795806
-4.3971243 1.0914364 -1.4137137
-5.204002 1.2917162 -1.5375051
-6.6935415 1.6614437 -1.2993975
-2.602608 0.6542129 -1.5914892
-2.7479074 0.6907365 -1.5919769
-2.916587 0.73313725 -1.5990202
-3.0852597 0.7755362 -1.5979103
-9.196719 2.3117628 -0.88470286
-3.2661698 0.82101125 -1.594099
-13.84252 3.4795692 -0.9980756
-3.4393876 0.8645526 -1.5789517
-3.695939 0.92904156 -1.5917968
-3.862926 0.97101676 -1.555348
-4.172122 1.0487387 -1.5657681
-4.083126 1.026368 -1.4225999
-4.32906 1.088188 -1.3928623
-4.4711185 1.123897 -1.3219568
-6.3976045 1.6081543 -1.4021566
-2.5957694 0.66020566 -1.5884286
-7.748138 1.9706545 -1.3135005
-2.752727 0.7001261 -1.5958955
-7.9560227 2.0235279 -1.153745
-2.9145284 0.7412786 -1.5990202
-8.020262 2.0398662 -0.9677677
-3.0848143 0.78458893 -1.5988079
-3.2568567 0.828346 -1.5906764
-13.79021 3.5073898 -0.9950064
-3.4440424 0.8759547 -1.5822055
-3.7040617 0.94208777 -1.596422
-3.7645068 0.9574613 -1.5167917
-4.0981426 1.0423179 -1.5390905
-4.231639 1.0762713 -1.3624792
-4.2471075 1.0802056 -1.1472291
-5.7863894 1.4717051 -1.269093
-6.605766 1.6801046 -1.284215
-2.5971308 0.6687633 -1.590469
-7.7690134 2.0005271 -1.3180399
-2.7472603 0.7074218 -1.5939362
-7.752433 1.9962578 -1.1250755
-2.9123158 0.7499237 -1.5990202
-3.0824726 0.7937392 -1.5988079
-9.027047 2.324472 -0.86965436
-3.2578855 0.8389082 -1.5923878
-3.4591215 0.8907266 -1.5903403
-13.5294695 3.4838495 -0.6515159
-3.6958883 0.95169425 -1.5941094
-15.606552 4.0186996 -0.37415805
-3.74902 0.96537566 -1.5116994
-4.0731916 1.04885 -1.5308822
-4.0404487 1.0404187 -1.4097952
-4.3042316 1.1083431 -1.3869048
-6.2010517 1.5967758 -1.2064512
-2.596918 0.67644584 -1.5914892
-6.5086493 1.6953744 -1.1050135
-2.7402124 0.71377116 -1.5909972
-7.746829 2.0178957 -1.1250755
-2.9085019 0.7576072 -1.5980812
-9.056045 2.3589203 -1.094372
-3.0819738 0.8027932 -1.5997056
-9.276819 2.4164279 -0.89436364
-3.25728 0.84845704 -1.5932435
-13.771712 3.5872586 -0.99514586
-3.4566212 0.90038145 -1.5903403
-13.482957 3.5120435 -0.6497457
-3.661071 0.9536366 -1.5802342
-14.794224 3.8536026 -0.3549395
-3.8418608 1.0007287 -1.5502557
-3.975675 1.0355847 -1.4953121
-4.0320272 1.0502633 -1.4078745
-4.223522 1.100144 -1.3618834
-5.5832725 1.4543321 -1.5103916
-2.588246 0.68239397 -1.5874085
-2.7313385 0.72012043 -1.5870786
-7.853798 2.0706625 -1.1414979
-2.9062412 0.7662337 -1.5980812
-3.0813065 0.81238985 -1.6006033
-3.253 0.8576571 -1.5923878
-13.674192 3.605216 -0.98886776
-3.457468 0.91156524 -1.5919673
-3.6867769 0.9720228 -1.5925676
-14.757589 3.8908548 -0.35433602
-3.9235425 1.0344462 -1.5844473
-4.167034 1.0986432 -1.5685045
-4.336694 1.1433741 -1.5154338
-4.2165475 1.1116973 -1.3606919
-4.606596 1.2145342 -1.3660588
-5.1935334 1.3692808 -1.406052
-5.3537526 1.4115227 -1.3118823
-5.94279 1.5668231 -1.1579412
-2.5896547 0.6905056 -1.5894488
-2.7394254 0.7304405 -1.5929565
-2.9092093 0.77571166 -1.6008981
-3.0738451 0.8196102 -1.5979103
-9.004916 2.401071 -0.8694686
-3.2505925 0.8667381 -1.5923878
-13.78745 3.6762862 -0.9977966
-3.4566743 0.9216878 -1.5927807
-13.819626 3.6848657 -0.6669816
-3.6983137 0.98611856 -1.5987345
-18.848223 5.025691 -0.45288906
-3.8738356 1.0329196 -1.5655328
-4.16395 1.1102759 -1.5685045
-4.298699 1.1462053 -1.5032693
-4.2650795 1.137241 -1.3773729
-5.1186495 1.3648369 -1.3868049
-5.8276515 1.5538852 -1.2819836
-5.9782724 1.5940468 -1.1657177
-2.5841513 0.69774115 -1.5874085
-2.7337503 0.73813415 -1.5909972
-8.615757 2.3263223 -1.254228
-2.903348 0.7839268 -1.5990202
-8.7738695 2.3690138 -1.062779
-3.0695295 0.8287971 -1.5970125
-9.024242 2.4366164 -0.8720696
-3.2408726 0.8750611 -1.5889652
-3.4502337 0.93159026 -1.5911539
-3.6577823 0.98763 -1.5825468
-18.683706 5.044748 -0.44931462
-3.8867586 1.0494554 -1.57208
-4.107824 1.1091447 -1.5486672
-4.1011767 1.10735 -1.4354045
-5.172241 1.3965458 -1.4025065
-5.553833 1.4995786 -1.3630664
-2.5821927 0.7049543 -1.5874085
-7.6135645 2.0785494 -1.2966399
-2.7350426 0.7466833 -1.5929565
-8.337921 2.276303 -1.214703
-2.9062583 0.7934262 -1.601837
-7.9106197 2.1596472 -0.9589402
-3.063755 0.83642375 -1.5952171
-9.111534 2.4875042 -0.88117296
-3.247136 0.8864879 -1.5932435
-13.699953 3.7401705 -0.9930532
-3.444094 0.9402586 -1.5895269
-8.973493 2.4498181 -0.4337849
-3.6941772 1.0085329 -1.5995053
-8.97118 2.4491868 -0.21590683
-3.8424768 1.0490196 -1.555348
-4.1572886 1.1349651 -1.5685045
-4.04506 1.104326 -1.4168377
-4.1606402 1.1358801 -1.3457981
-5.2336493 1.428818 -1.4202341
-5.0539875 1.3797693 -1.2413312
-5.8598475 1.599774 -1.2911317
-6.2114 1.69575 -1.2131166
-2.5817473 0.71307135 -1.5884286
-2.7412186 0.75711685 -1.597855
-8.191769 2.2625434 -1.1943837
-2.9004867 0.8011063 -1.5999593
-3.0612595 0.84551126 -1.5952171
-7.92555 2.1890147 -0.76710165
-3.2375212 0.8941942 -1.5898207
-13.590714 3.753717 -0.985938
-3.4307218 0.94755566 -1.584646
-14.044326 3.879003 -0.6794659
-3.6876106 1.0185077 -1.5979637
-8.965801 2.476329 -0.21595326
-3.884241 1.0728165 -1.5735351
-4.025282 1.1117715 -1.5199375
-3.932183 1.0860579 -1.3784237
-5.3841786 1.487095 -1.4622738
-5.0292363 1.389061 -1.236259
-5.755132 1.5895512 -1.269093
-5.8691216 1.6210349 -1.1472024
-2.579872 0.71982753 -1.5884286
-2.7442656 0.76569617 -1.600794
-2.9000807 0.8091712 -1.6008981
-7.883127 2.1995249 -0.95708185
-3.0487068 0.8506404 -1.5898309
-3.2369103 0.90315235 -1.5906764
-13.638493 3.8053684 -0.99012333
-3.4159105 0.95309633 -1.5789517
-13.951377 3.8926682 -0.67545974
-3.6511576 1.0187342 -1.5833175
-18.278717 5.100069 -0.44058734
-3.7396572 1.0434271 -1.5160643
-4.000634 1.1162441 -1.511729
-4.5937457 1.2817321 -1.4881823
-4.8400054 1.3504426 -1.1906081
-5.732108 1.5993544 -1.2649348
-2.5775979 0.7279284 -1.5884286
-2.7334566 0.7719438 -1.5958955
-8.054713 2.274697 -1.1762912
-2.895825 0.81779754 -1.5999593
-3.0511794 0.8616705 -1.5925239
-9.031988 2.5506852 -0.87559944
-3.2323177 0.912825 -1.5898207
-13.59959 3.8406022 -0.9881702
-3.4041078 0.96133953 -1.5748844
-8.767201 2.4759078 -0.4248409
-3.6674755 1.035716 -1.5917968
-18.208729 5.142249 -0.43928754
-3.8905485 1.0987132 -1.5786273
-3.9645526 1.1196123 -1.4994164
-4.1446753 1.17048 -1.4552517
-4.244275 1.1986076 -1.3761815
-5.103677 1.4413075 -1.3883245
-6.2966123 1.7781993 -1.2327428
-2.575555 0.7351237 -1.5884286
-7.6099925 2.17207 -1.3002067
-2.727937 0.7786171 -1.5939362
-7.3379583 2.094425 -1.072468
-2.8969262 0.82685053 -1.601837
-3.045324 0.8692068 -1.5907286
-8.915682 2.5447443 -0.8650098
-3.2314942 0.9223441 -1.5906764
-13.560035 3.8703516 -0.9860775
-3.3715425 0.9623171 -1.5610553
-3.6379502 1.0383561 -1.5802342
-13.77983 3.9330862 -0.33270356
-3.8785076 1.1070169 -1.57499
-4.1041803 1.1714292 -1.5534555
-4.4245005 1.2628559 -1.4357563
-4.322247 1.2336705 -1.2888803
-4.988002 1.4236926 -1.3579344
-5.746972 1.6403203 -1.2703406
-6.3199706 1.8038676 -1.2382972
-2.5748856 0.74368954 -1.5894488
-7.4324865 2.1466827 -1.271025
-2.7388785 0.79105467 -1.6017737
-2.897707 0.83692825 -1.603715
-3.0494463 0.88075423 -1.5943195
-8.999475 2.599267 -0.87392735
-3.2198968 0.9299845 -1.5863981
-13.551641 3.9140434 -0.9863565
-3.2930224 0.9511049 -1.526076
-13.802231 3.9864197 -0.66996294
-3.6382155 1.0508051 -1.5817758
-15.57117 4.4973326 -0.37629342
-3.8750105 1.1191972 -1.57499
-4.105896 1.1858827 -1.5555077
-4.099429 1.1840148 -1.4418069
-4.15638 1.2004637 -1.3499684
-4.972351 1.4361359 -1.3548952
-6.083854 1.7571651 -1.3460205
-2.5711474 0.75039464 -1.5884286
-2.736659 0.7986995 -1.6017737
-7.43377 2.1695611 -1.0883337
-2.8919685 0.8440269 -1.601837
-8.592535 2.5077488 -1.0467501
-3.0486908 0.88976663 -1.5952171
-3.1634924 0.9232717 -1.5598726
-13.594287 3.9675202 -0.9902629
-3.3429716 0.97565305 -1.5504802
-3.637039 1.0614772 -1.5825468
-17.884851 5.2197304 -0.43255642
-3.852198 1.1242719 -1.5669878
-3.471127 1.0130556 -1.3160936
-4.0906506 1.1938647 -1.4398862
-4.231802 1.2350601 -1.264073
-4.950674 1.4448643 -1.2219642
-5.5962915 1.6332891 -1.2391539
-6.1846323 1.8049974 -1.2138572
-2.5690417 0.7575719 -1.5884286
-2.7143486 0.8004207 -1.5900174
-2.8912942 0.85259926 -1.602776
-3.0444798 0.8977715 -1.5943195
-3.2198544 0.9494868 -1.5889652
-13.533399 3.9907963 -0.98663557
-3.3787885 0.99635404 -1.5683765
-8.960383 2.6422827 -0.43564823
-3.671233 1.0825915 -1.5987345
-14.669369 4.325777 -0.35507876
-3.7168107 1.0960318 -1.5131544
-3.9387743 1.1614854 -1.4946281
-4.1309175 1.2181456 -1.4552517
-4.0965047 1.2079978 -1.3326917
-4.268904 1.2588359 -1.276201
-4.9011555 1.4452773 -1.3376741
-5.5626144 1.6403315 -1.3741333
-6.1827774 1.8232083 -1.3701382
-6.222926 1.8350476 -1.2223742
-2.5652678 0.7642521 -1.5874085
-2.6920502 0.80202353 -1.5782614
-7.3740845 2.196909 -1.0813751
-2.8922865 0.8616785 -1.604654
-9.0143585 2.6855843 -1.0999472
-3.031684 0.90320814 -1.5889332
-9.796112 2.9184864 -0.9536287
-3.23105 0.96260387 -1.5958105
-3.4110134 1.0162191 -1.584646
-14.547618 4.3340693 -0.7078818
-3.6681952 1.0928395 -1.5987345
-14.546091 4.333614 -0.35238633
-3.8387167 1.1436417 -1.5640779
-3.9535265 1.1778462 -1.5014684
-4.234637 1.2615954 -1.4930255
-4.425669 1.3185084 -1.324162
-4.9508743 1.4749789 -1.3523628
-5.701625 1.6986448 -1.4096395
-5.7145715 1.7025019 -1.2674297
-2.5680652 0.77290016 -1.590469
-2.6731036 0.80451316 -1.5684646
-2.886487 0.8687343 -1.602776
-3.0411296 0.9152764 -1.5952171
-8.287223 2.4941716 -0.8074168
-3.2266183 0.9711022 -1.5949548
-8.914289 2.6828973 -0.6509674
-3.4064126 1.0252142 -1.5838326
-14.458936 4.3516474 -0.70415515
-3.6580606 1.1009517 -1.5956511
-14.509042 4.3667274 -0.35178283
-3.7784214 1.1371762 -1.5407984
-4.19481 1.2624949 -1.4802209
-4.6436405 1.3975776 -1.5132039
-4.0335293 1.2139549 -1.2078431
-4.9170923 1.4798774 -1.3442587
-5.6856117 1.7111754 -1.1186891
-2.5656245 0.78096366 -1.590469
-2.6555507 0.8083368 -1.5596476
-7.453759 2.268888 -1.0950141
-2.8871224 0.8788261 -1.604654
-3.0382392 0.9248253 -1.5952171
-3.2252812 0.9817599 -1.5958105
-9.400161 2.8613632 -0.68710124
-3.3961835 1.0337818 -1.5805787
-14.823621 4.512238 -0.7226022
-3.661646 1.1145872 -1.5987345
-18.07794 5.502837 -0.43873048
-3.8372097 1.168028 -1.5662602
-3.8961256 1.1859617 -1.4823153
-4.252453 1.2944261 -1.5019889
-4.06389 1.2370284 -1.3255427
-5.0193954 1.5278796 -1.1152384
-5.6350827 1.7152919 -1.1098018
-2.561652 0.7880663 -1.5894488
-5.7098236 1.7565695 -0.9814777
-2.6648066 0.8198008 -1.5665053
-7.441315 2.2892454 -1.094179
-2.887878 0.8884264 -1.6065319
-7.757875 2.3866317 -0.9491835
-3.0388985 0.9348864 -1.5970125
-8.22425 2.5301075 -0.80277216
-3.2188983 0.99026155 -1.594099
-3.4105647 1.0492258 -1.5887134
-3.6353922 1.1183916 -1.5887134
-13.849533 4.2606688 -0.3364173
-3.780308 1.1629736 -1.544436
-3.9159412 1.2046998 -1.4912078
-4.2395387 1.3042513 -1.4987876
-4.2428675 1.3052752 -1.2728933
-4.60653 1.4171525 -1.2616987
-4.6074305 1.4174294 -1.1421908
-2.5625877 0.7966849 -1.5914892
-5.7102404 1.7752612 -0.9824504
-2.6939976 0.8375391 -1.5851191
-2.8801703 0.89541847 -1.603715
-7.695749 2.3925376 -0.9424468
-3.0292847 0.94177675 -1.5934217
-9.021073 2.8045688 -0.8813588
-3.1158254 0.96868145 -1.5444707
-7.656921 2.3804665 -0.5607025
-3.4109256 1.0604254 -1.5903403
-3.6532052 1.1357479 -1.5979637
-20.143309 6.2623696 -0.4897478
-3.7288074 1.1592519 -1.5247941
-3.9446537 1.2263565 -1.5035206
-4.1162343 1.2796993 -1.4565322
-3.9963143 1.2424173 -1.3058829
-4.6004577 1.4302399 -1.2611922
-5.3371572 1.6592731 -1.1880075
-5.6079135 1.7434486 -1.106469
-2.5652769 0.8053839 -1.5945498
-2.719929 0.85393786 -1.6017737
-7.5999603 2.3860528 -1.1195085
-2.8726041 0.9018712 -1.6008981
-3.028348 0.9507679 -1.5943195
-8.956208 2.8118548 -0.87578523
-3.2010686 1.0049945 -1.5881095
-3.387033 1.0633792 -1.5805787
-8.830943 2.772527 -0.4316421
-3.6570623 1.1481565 -1.601047
-18.62633 5.847847 -0.45326045
-3.7575498 1.1797051 -1.5378886
-3.8174908 1.198524 -1.4563218
-3.9897175 1.2525955 -1.4129963
-4.0347247 1.2667259 -1.3195852
-4.600295 1.4442899 -1.3825971
-4.903698 1.5395452 -1.2178141
-4.933585 1.5489285 -0.97427034
-2.5613775 0.81202465 -1.5935296
-2.7175333 0.8615302 -1.6017737
-7.026887 2.2277095 -1.0360047
-2.8734412 0.91095704 -1.602776
-7.865945 2.4937131 -0.96498007
-3.0273848 0.9597612 -1.5952171
-8.900865 2.8218102 -0.8711406
-3.2068653 1.0166613 -1.5923878
-13.335723 4.227778 -0.9782648
-3.3892753 1.0744901 -1.5830191
-3.6643968 1.161711 -1.6056721
-17.241436 5.4659925 -0.41992974
-3.731154 1.1828747 -1.5284314
-3.8839977 1.2313303 -1.4829994
-4.0602565 1.2872089 -1.4392459
-4.642059 1.4716558 -1.396379
-4.3895206 1.3915944 -1.2054769
-5.262984 1.6685054 -1.3081933
-5.4191833 1.7180248 -1.2083828
-2.5607386 0.81969887 -1.5945498
-6.435727 2.0600924 -1.1102014
-2.7134564 0.8685842 -1.600794
-2.8658402 0.9173627 -1.5999593
-7.8400307 2.5096135 -0.96265703
-3.0332031 0.970936 -1.5997056
-3.207457 1.026715 -1.594099
-3.3827813 1.0828367 -1.5813922
-14.01927 4.4876037 -0.68645346
-3.6330163 1.1629376 -1.5933386
-9.963185 3.1892407 -0.24287778
-3.7686453 1.2063528 -1.5451634
-4.011532 1.2841015 -1.4232401
-4.320337 1.3829507 -1.4155009
-4.3800893 1.4020776 -1.2039573
-4.919118 1.574622 -1.2238086
-5.0883107 1.628781 -1.1356138
-6.9633107 2.2289732 -1.3775318
-2.5599322 0.8278226 -1.59557
-5.732923 1.8538942 -0.989908
-2.7158446 0.87824106 -1.6037331
-7.0497446 2.2797236 -1.0412933
-2.8463037 0.9204285 -1.5905699
-3.0286088 0.9793818 -1.5988079
-8.865518 2.8669028 -0.86928284
-3.2026768 1.0356714 -1.5932435
-9.400574 3.0399272 -0.6908681
-3.3778148 1.092307 -1.5805787
-8.82972 2.8553264 -0.4327601
-3.6155019 1.1691694 -1.5871717
-14.472025 4.679917 -0.35312906
-3.766822 1.2181028 -1.5458908
-3.9805572 1.2872199 -1.5226736
-4.177171 1.3508002 -1.4834222
-3.9274647 1.270051 -1.2880105
-4.393873 1.4208766 -1.324162
-6.995938 2.2623239 -1.385308
-2.5540483 0.8347913 -1.5935296
-2.713072 0.8867683 -1.6037331
-2.7997568 0.9151012 -1.5661572
-3.023818 0.98833567 -1.5979103
-8.905681 2.9108238 -0.8741132
-3.1994073 1.0457271 -1.5932435
-3.3552632 1.0966686 -1.5716305
-14.927786 4.879151 -0.73238474
-3.641632 1.1902684 -1.6002762
-14.447748 4.72225 -0.35289696
-3.762977 1.2299299 -1.5458908
-4.051522 1.3242409 -1.5514034
-4.2557526 1.3909937 -1.5128729
-4.068634 1.3298341 -1.3356705
-4.1335535 1.351053 -1.2469834
-4.3070755 1.4077687 -1.1862297
-5.515246 1.8026595 -1.2333323
-6.960773 2.2751305 -1.3797535
-2.553341 0.8424595 -1.5945498
-7.344846 2.4233878 -1.2707007
-2.6973383 0.8899706 -1.5958955
-2.7888055 0.9201497 -1.5614625
-3.0176518 0.99565613 -1.5961149
-7.934958 2.6180918 -0.7795492
-3.1844578 1.0506927 -1.5872539
-8.72492 2.878735 -0.64245707
-3.2428772 1.0699679 -1.5203817
-3.6032426 1.1888683 -1.5848591
-14.440202 4.7644577 -0.35303622
-3.830295 1.2637829 -1.57499
-3.341048 1.1023588 -1.2805234
-4.2212625 1.3927803 -1.5019889
-4.0377083 1.3322176 -1.3267342
-3.8650358 1.2752454 -1.1670486
-4.8790336 1.6098078 -1.217353
-6.9581256 2.2957919 -1.3804941
-2.5508304 0.8500313 -1.5945498
-6.897629 2.2985458 -1.194504
-2.6979947 0.89907193 -1.597855
-6.811215 2.2697496 -1.0090051
-2.8145437 0.9379104 -1.5774245
-7.6212373 2.539679 -0.9394269
-3.0163803 1.0051699 -1.5970125
-3.1401665 1.04642 -1.566718
-3.3228908 1.1073104 -1.5594283
-13.80771 4.601241 -0.6787206
-3.615457 1.2048044 -1.5917968
-14.43359 4.809808 -0.3532219
-3.8477383 1.2822092 -1.5837197
-4.4094524 1.4693931 -1.5704939
-4.019248 1.3393625 -1.3219682
-4.601746 1.5334725 -1.3908662
-4.957865 1.6521446 -1.3680644
-6.9233146 2.3071053 -1.3749396
-2.5499275 0.85814494 -1.59557
-7.349041 2.4732242 -1.2739431
-2.7035778 0.90985394 -1.6027533
-2.843548 0.9569591 -1.5952646
-7.6946254 2.589526 -0.9494159
-3.0150783 1.0146854 -1.5979103
-7.7682962 2.614319 -0.76468647
-3.121628 1.0505433 -1.5590171
-7.5069513 2.5263667 -0.5538664
-3.3455653 1.1259066 -1.5716305
-13.648198 4.5931234 -0.67154676
-3.6206121 1.21847 -1.5956511
-3.7944772 1.276982 -1.5633504
-3.799892 1.2788042 -1.3547351
-3.9790664 1.339103 -1.3100532
-4.573489 1.5391483 -1.3836997
-3.9113748 1.3163223 -1.0803707
-4.95793 1.6685269 -1.2394867
-6.9536943 2.3401754 -1.3823457
-2.5493007 0.86537075 -1.5965902
-6.4866276 2.2019126 -1.1254407
-2.7044888 0.91804993 -1.6047127
-7.52985 2.5560389 -1.1175601
-2.8527381 0.9683739 -1.601837
-7.697224 2.6128547 -0.9505773
-3.0090268 1.0214267 -1.5961149
-7.2485223 2.460541 -0.71415323
-3.1411202 1.0662663 -1.5701406
-3.3287656 1.1299633 -1.5651227
-13.639911 4.6301246 -0.6717331
-3.5999343 1.2220128 -1.5879427
-14.965039 5.079945 -0.36691627
-3.6976223 1.2551733 -1.5247941
-3.957468 1.343379 -1.3040957
-4.420163 1.5004427 -1.3384951
-4.693705 1.5932977 -1.174469
-6.7130427 2.2787702 -1.3356873
-2.5434673 0.8718154 -1.5945498
-2.705052 0.92720115 -1.606672
-7.166261 2.4563541 -1.0646744
-2.8448408 0.97511613 -1.5990202
-7.550381 2.5880177 -0.93338704
-3.0026016 1.0291913 -1.5943195
-3.1841142 1.0914077 -1.5932435
-7.583316 2.5993066 -0.560563
-3.3150277 1.1362804 -1.5602418
-13.771633 4.7204547 -0.6789069
-3.5770888 1.2261062 -1.5794632
-3.7079804 1.2709714 -1.5306138
-3.7121432 1.2723984 -1.4282761
-4.2605033 1.4603578 -1.5218362
-4.041962 1.3854492 -1.3332875
-4.042867 1.3857595 -1.2254838
-4.8325524 1.6564372 -1.2104363
-5.304391 1.8181674 -1.0564779
-2.5408695 0.87935835 -1.5945498
-6.458526 2.235203 -1.1228467
-2.705584 0.93636376 -1.6086314
-7.1383533 2.4704814 -1.0616125
-2.8219097 0.97662234 -1.5877529
-7.510757 2.5993648 -0.929438
-3.0012236 1.0386803 -1.5952171
-8.024167 2.7770488 -0.7921825
-3.1552372 1.0919821 -1.5804086
-3.2149515 1.1126484 -1.5146873
-3.5158834 1.2167966 -1.5540253
-13.487272 4.667751 -0.33135733
-3.7429252 1.2953726 -1.5466185
-4.1397653 1.4327133 -1.4802209
-4.019791 1.3911918 -1.32733
-4.1768146 1.4455354 -1.2673806
-5.1733656 1.7904274 -1.2971265
-2.541342 0.8884713 -1.5965902
-6.8762307 2.4039793 -1.1967738
-2.6960456 0.94255674 -1.6047127
-7.642821 2.6719844 -1.1378794
-2.815494 0.9843167 -1.5858752
-7.333789 2.5639446 -0.90853083
-2.994572 1.0469236 -1.5934217
-8.669567 3.0309424 -0.85683525
-3.170562 1.108451 -1.5898207
-9.418629 3.2928197 -0.69770426
-3.2735305 1.1444496 -1.5439724
-9.30691 3.2537618 -0.4597785
-3.5381753 1.2369713 -1.5655881
-13.604662 4.7562866 -0.33460683
-3.5119748 1.2278113 -1.4527737
-3.9633188 1.3856045 -1.528146
-4.249715 1.4857305 -1.5211959
-4.6894407 1.6394618 -1.5501404
-4.0778832 1.4256569 -1.2387145
-5.2393622 1.8317183 -1.3151102
-5.2482986 1.8348424 -1.1817702
-2.5359187 0.8935346 -1.5945498
-6.4794474 2.2830427 -1.1286831
-2.6970236 0.95030016 -1.606672
-2.834732 0.9988219 -1.5980812
-7.366846 2.5957189 -0.9134091
-2.995376 1.055425 -1.5952171
-7.595334 2.6762269 -0.75131005
-3.1780741 1.119799 -1.5949548
-3.3396542 1.176732 -1.5765113
-9.293279 3.2745 -0.45949897
-3.5769162 1.2603315 -1.5840883
-13.67032 4.8167567 -0.33651015
-3.5493777 1.2506284 -1.4695055
-4.04855 1.4265125 -1.562348
-3.8886585 1.3701744 -1.3931491
-4.3558927 1.5348049 -1.4411181
-4.408026 1.5531744 -1.3401489
-3.6788697 1.296255 -1.0211098
-5.2183514 1.8386935 -1.3109602
-5.1238675 1.805402 -1.1547416
-2.534877 0.90163225 -1.59557
-6.5507402 2.3300374 -1.1423013
-2.6958346 0.95888335 -1.6076517
-2.8300922 1.0066375 -1.5971423
-2.9922311 1.0643088 -1.5952171
-7.510435 2.671392 -0.74369293
-3.1781437 1.1304362 -1.5966661
-3.3275406 1.1835753 -1.572444
-7.425687 2.6412477 -0.36754328
-3.5835934 1.2746508 -1.5887134
-13.704947 4.874722 -0.33771712
-4.0478406 1.4397792 -1.563716
-4.57617 1.6277012 -1.5155869
-4.7457438 1.688017 -1.4443399
-6.7608066 2.404756 -1.3519807
-2.5305715 0.90856814 -1.5945498
-2.6864135 0.9645211 -1.6037331
-7.5176454 2.6991107 -1.1225703
-2.827093 1.0150303 -1.5971423
-8.192638 2.941458 -1.0179448
-2.992424 1.0743902 -1.5970125
-3.1526575 1.1319199 -1.5855424
-7.5843 2.7230425 -0.5634928
-3.3515282 1.2033217 -1.5854595
-13.385918 4.8060365 -0.6632549
-3.5537415 1.2759237 -1.5771507
-13.724295 4.927526 -0.33855268
-3.7680838 1.3528805 -1.5633504
-3.9480338 1.4174892 -1.5267779
-3.9161246 1.4060326 -1.4059538
-4.801324 1.7238518 -1.5918428
-4.7551894 1.7072878 -1.44875
-4.3521624 1.5625861 -1.210542
-5.37769 1.9307883 -1.3538442
-6.4958177 2.3322372 -1.467025
-6.435475 2.310572 -1.2882884
-2.5294821 0.9166582 -1.59557
-7.137968 2.586726 -1.2473553
-2.6851792 0.9730812 -1.6047127
-2.8290496 1.0252184 -1.5999593
-7.382669 2.6754029 -0.91828746
-2.9909036 1.0838726 -1.5979103
-7.548744 2.735587 -0.7490806
-3.1628816 1.1461957 -1.5923878
-9.382543 3.4001365 -0.6978438
-3.3462253 1.2126374 -1.584646
-13.64583 4.945108 -0.67685723
-3.5395303 1.2826892 -1.5725257
-13.677658 4.956642 -0.33776352
-3.7307742 1.3519939 -1.5495282
-3.9067051 1.4157497 -1.5124131
-3.9279685 1.4234552 -1.411716
-4.19128 1.5188764 -1.3910751
-4.292936 1.5557156 -1.1953468
-6.343569 2.2988439 -1.434175
-6.3694615 2.308227 -1.2764387
-2.5188339 0.9207653 -1.590469
-5.2864065 1.9324576 -0.92473555
-2.679176 0.9793787 -1.6027533
-7.275038 2.6594062 -1.0886121
-2.8261757 1.0331148 -1.5999593
-7.414349 2.7103317 -0.9231658
-2.9878652 1.0922207 -1.5979103
-7.412025 2.7094822 -0.73626155
-3.157971 1.1544033 -1.5915322
-9.2249775 3.3722107 -0.68682224
-3.3290975 1.216959 -1.5781382
-14.391906 5.260993 -0.71458983
-3.5723338 1.3058745 -1.5887134
-15.994265 5.846739 -0.3953727
-3.6587434 1.3374617 -1.5211567
-4.022766 1.4705311 -1.5589278
-3.9827042 1.4558862 -1.4328437
-4.0310173 1.4735473 -1.339245
-3.9923172 1.4594004 -1.2188685
-5.2495003 1.9189664 -1.3243326
-5.756512 2.1043057 -1.3027748
-6.580812 2.4056304 -1.3201345
-2.512701 0.9274826 -1.5884286
-7.209511 2.6611586 -1.2625947
-2.6777217 0.9883947 -1.6037331
-7.2517824 2.6767616 -1.0863853
-2.822916 1.0419885 -1.5999593
-7.3461637 2.7115996 -0.91573215
-2.9827423 1.1009831 -1.5970125
-7.476334 2.7596478 -0.74350715
-3.147545 1.1618148 -1.5881095
-7.76752 2.8671296 -0.5789787
-3.3389704 1.2324733 -1.584646
-3.4833796 1.2857773 -1.550942
-13.537334 4.9968705 -0.33502465
-3.6894784 1.361852 -1.5357062
-3.862973 1.425892 -1.4987323
-4.0634627 1.4998963 -1.2420219
-4.3471565 1.6046127 -1.2130744
-5.2562256 1.9401662 -1.3275604
-5.20113 1.9198294 -1.1784436
-6.425717 2.3718462 -1.2905102
-2.5117135 0.93509614 -1.5894488
-7.16691 2.6681986 -1.2564341
-2.6765852 0.99647695 -1.6047127
-7.181173 2.6735084 -1.0769216
-2.8216503 1.0504838 -1.6008981
-7.1021357 2.6440833 -0.88622993
-2.9796562 1.1093085 -1.5970125
-7.5021896 2.793021 -0.7468512
-3.1324296 1.166185 -1.5821198
-3.3492138 1.2468926 -1.5911539
-13.553478 5.04588 -0.6744349
-3.566251 1.3276943 -1.5894842
-13.540192 5.0409336 -0.33544242
-3.7432768 1.3935999 -1.5597129
-16.001076 5.957106 0.0
-3.9505627 1.4707712 -1.5343024
-3.9100697 1.455696 -1.4097952
-4.2548027 1.584038 -1.4166924
-5.084819 1.8930482 -1.2855985
-6.643781 2.4734406 -1.3356873
-2.513924 0.94392085 -1.5925094
-7.1501927 2.6847336 -1.2548128
-2.6721597 1.0033348 -1.6037331
-2.820359 1.0589802 -1.601837
-6.8734202 2.580812 -0.858586
-2.9798932 1.1188817 -1.5988079
-9.142375 3.4327521 -0.9110842
-3.1054676 1.166032 -1.5701406
-3.3525605 1.2588097 -1.5944077
-13.150304 4.937638 -0.6550562
-3.5728955 1.3415405 -1.5941094
-13.606552 5.1089487 -0.33743858
-3.7585561 1.4112517 -1.5677153
-15.984377 6.0017676 0.0
-3.962275 1.4877435 -1.5404587
-3.820845 1.4346397 -1.379064
-4.1502695 1.5583313 -1.3833303
-4.071221 1.5286502 -1.2469834
-5.1677146 1.9403584 -1.4450527
-4.2213883 1.5850347 -1.0684117
-5.9815125 2.245921 -1.3580793
-6.633168 2.4906027 -1.3349468
-2.5080607 0.9497179 -1.590469
-6.712632 2.541847 -1.1792647
-2.6628253 1.008322 -1.5998144
-7.1902084 2.7226892 -1.0805401
-2.814088 1.0656 -1.5999593
-2.9734144 1.1259316 -1.5970125
-7.479026 2.8320544 -0.7461081
-3.1207962 1.18174 -1.5795529
-7.5081325 2.8430762 -0.5614001
-3.347324 1.2675185 -1.5935943
-13.556849 5.1335206 -0.6760188
-3.5622323 1.348897 -1.5910261
-8.152722 3.0871606 -0.20239815
-3.7110436 1.4052469 -1.5495282
-15.988131 6.054165 0.0
-3.9651356 1.5014629 -1.5431948
-4.1180596 1.55937 -1.4879037
-3.7289243 1.4120177 -1.1433438
-4.317277 1.634807 -1.2085159
-2.5100527 0.95899725 -1.5935296
-7.1088023 2.7160077 -1.2502735
-2.659822 1.0162185 -1.5998144
-7.250552 2.7701647 -1.0908388
-2.8059652 1.0720544 -1.5971423
-7.198025 2.7500963 -0.9010972
-2.9717302 1.1353871 -1.5979103
-9.321495 3.5613947 -0.93096304
-3.1324742 1.1968012 -1.5872539
-7.618943 2.9109132 -0.57032895
-3.3452551 1.2780969 -1.5944077
-7.52288 2.874211 -0.3755556
-3.5444226 1.3541913 -1.5848591
-14.585505 5.572576 -0.36250624
-3.6877146 1.4089379 -1.5415261
-3.8816612 1.4830376 -1.5124131
-4.039076 1.5431798 -1.4610139
-4.522889 1.7280269 -1.5108207
-5.181157 1.9795264 -1.3141879
-5.0108905 1.9144739 -1.1401879
-6.570979 2.5105255 -1.3253188
-2.507196 0.9664413 -1.5935296
-6.8208084 2.6291964 -1.2009889
-2.6633024 1.0266151 -1.6037331
-7.1905565 2.771722 -1.0830451
-2.7846467 1.0733894 -1.5868139
-2.968348 1.1442002 -1.5979103
-7.6107345 2.933687 -0.7609708
-3.1255352 1.2047907 -1.5855424
-9.205673 3.5484831 -0.6898915
-3.3448577 1.2893323 -1.5960346
-3.5042272 1.3507639 -1.5686715
-9.292831 3.5820796 -0.23122597
-3.6452744 1.4051329 -1.5255215
-3.9719386 1.5310512 -1.5493512
-4.0792527 1.5724173 -1.2535988
-4.4609523 1.7195499 -1.2515687
-6.6717 2.5717201 -1.3471668
-2.5028844 0.97281533 -1.5925094
-6.6589236 2.588175 -1.1737527
-2.6571748 1.0327846 -1.6017737
-2.7832844 1.0818006 -1.5877529
-6.848791 2.6619725 -0.8592829
-2.9651415 1.1524844 -1.5979103
-3.1305835 1.216788 -1.5898207
-9.162256 3.5611646 -0.68738025
-3.3259175 1.29271 -1.5887134
-6.9214954 2.690231 -0.34630123
-3.531404 1.372578 -1.5825468
-15.880079 6.1722326 -0.39555842
-3.755942 1.4598509 -1.5735351
-3.9711514 1.5434979 -1.5507194
-4.019524 1.5622994 -1.4571724
-4.023494 1.5638423 -1.3469898
-4.7941885 1.863394 -1.2187364
-4.966959 1.9305463 -1.1327031
-6.649837 2.5846434 -1.3442043
-2.4887762 0.97584105 -1.585368
-6.831276 2.678521 -1.2055283
-2.6540992 1.0406636 -1.6017737
-2.789927 1.0939212 -1.5933865
-6.7705874 2.6547253 -0.85045546
-2.9650369 1.1625813 -1.5997056
-7.4342747 2.914955 -0.7449934
-3.121911 1.2240912 -1.5872539
-7.6099677 2.9838436 -0.5715845
-3.3101606 1.2979032 -1.5830191
-12.932325 5.0707226 -0.64778924
-3.4998264 1.3722705 -1.5702132
-13.22956 5.1872673 -0.32991827
-3.7689388 1.4777886 -1.5808098
-3.7443433 1.4681448 -1.4638462
-3.7784953 1.4815357 -1.3713812
-3.9957297 1.5667126 -1.339245
-4.1972084 1.6457118 -1.2927393
-4.6887445 1.8384414 -1.3184271
-4.8049455 1.8840034 -1.2228864
-6.6823955 2.6201456 -1.352351
-2.4826703 0.9819564 -1.5833278
-6.8471556 2.7082164 -1.2097434
-2.6477568 1.0472522 -1.5998144
-7.155045 2.8299942 -1.0813751
-2.791595 1.1041436 -1.5962034
-2.961574 1.1713744 -1.5997056
-7.4941072 2.9641016 -0.7518674
-3.119946 1.2340144 -1.5881095
-7.4971857 2.9653192 -0.56377184
-3.2842076 1.2989838 -1.572444
-12.813185 5.067926 -0.64257187
-3.5283449 1.3955461 -1.5848591
-12.80692 5.065448 -0.31975195
-3.7437482 1.4807433 -1.57208
-3.846577 1.5214146 -1.5055727
-4.004896 1.5840338 -1.4552517
-3.948454 1.5617094 -1.324947
-3.9833868 1.5755262 -1.1213974
-6.285228 2.4859602 -1.43667
-6.619762 2.6182766 -1.3412418
-2.4939525 0.9954902 -1.5925094
-6.7542996 2.6960576 -1.1948283
-2.6493118 1.0575037 -1.6027533
-6.971375 2.7827058 -1.0549322
-2.7913926 1.1142169 -1.5980812
-7.1619706 2.8587842 -0.9017941
-2.95622 1.1800097 -1.5988079
-3.1210907 1.2458197 -1.5906764
-9.368591 3.7395828 -0.70537746
-3.2852013 1.3113264 -1.5748844
-3.5513673 1.4175696 -1.5971928
-13.043493 5.206463 -0.32606527
-3.694091 1.4745395 -1.5531656
-3.880179 1.5488187 -1.5206215
-4.012095 1.6014745 -1.2387145
-4.0143566 1.6023773 -1.1315275
-6.3028235 2.5158455 -1.4424914
-6.4709496 2.5829551 -1.3127284
-2.4931083 1.0022229 -1.5935296
-6.8062882 2.7361097 -1.205204
-2.6434844 1.0626737 -1.600794
-7.5066504 3.0176535 -1.1370443
-2.7886617 1.1210345 -1.5980812
-2.953328 1.1872299 -1.5988079
-7.3554916 2.956888 -0.73960567
-3.1113281 1.2507457 -1.5872539
-3.3175874 1.3336612 -1.5919673
-8.30995 3.3405776 -0.41766706
-3.5050855 1.409035 -1.5779216
-12.973224 5.2152014 -0.3246262
-3.7008486 1.4877312 -1.5575305
-3.9531085 1.5891391 -1.5507194
-3.8500717 1.5477185 -1.4021124
-3.76607 1.51395 -1.2665635
-3.9671426 1.5947808 -1.2260351
-4.0786457 1.6396047 -1.1507746
-6.256725 2.5151868 -1.4333434
-6.35338 2.5540419 -1.2901399
-2.4899473 1.0100504 -1.5935296
-6.806802 2.761188 -1.2068253
-2.638517 1.0703179 -1.5998144
-7.0401473 2.855845 -1.0677361
-2.7834897 1.1291262 -1.5971423
-7.0998726 2.8800726 -0.8959865
-2.951239 1.1971741 -1.5997056
-7.37938 2.9934554 -0.7429497
-3.1006825 1.2577959 -1.5838312
-3.316767 1.3454509 -1.5935943
-3.4903805 1.4158775 -1.5732965
-7.802227 3.1649837 -0.19548132
-3.6650817 1.4867452 -1.544436
-3.8697264 1.5697596 -1.5199375
-3.9745834 1.612295 -1.229894
-6.2161613 2.521594 -1.4258585
-6.5638776 2.6626456 -1.3345764
-2.4853475 1.0167826 -1.5925094
-6.6743712 2.7305574 -1.1847769
-2.6369433 1.0788021 -1.600794
-7.0518064 2.8849704 -1.0707979
-2.7784927 1.1367115 -1.5962034
-7.6428614 3.1267774 -0.9656769
-2.9410577 1.2032186 -1.5961149
-7.0737314 2.8939402 -0.71303856
-3.078533 1.2594612 -1.5744189
-7.5081615 3.07167 -0.5672596
-3.3144512 1.3559779 -1.5944077
-14.407967 5.894455 -0.7259562
-3.4690835 1.4192396 -1.5655881
-7.839067 3.2070472 -0.19664186
-3.6830702 1.5067838 -1.5538932
-3.939848 1.6118345 -1.5493512
-3.8563282 1.5776656 -1.4078745
-3.892814 1.5925924 -1.3124362
-4.046295 1.6553831 -1.2535988
-6.2158947 2.5429897 -1.4275218
-6.565044 2.6858306 -1.3364279
-2.4842675 1.0239408 -1.5935296
-6.855137 2.8254826 -1.2181736
-2.6341102 1.0857015 -1.600794
-2.773875 1.1433084 -1.5952646
-7.259988 2.99235 -0.91828746
-2.9246788 1.2054652 -1.5889332
-7.368071 3.0368986 -0.74350715
-3.0668685 1.2640715 -1.5701406
-6.819442 2.8107703 -0.5157794
-3.3058226 1.3625613 -1.5919673
-3.545549 1.4613693 -1.6018178
-14.175019 5.8425193 -0.3559608
-3.6877248 1.5199699 -1.5575305
-3.9060762 1.6099678 -1.5377226
-3.8819652 1.6000301 -1.4187584
-3.8586235 1.5904093 -1.3023084
-4.002843 1.6498523 -1.2414707
-4.6133394 1.9014807 -1.1823081
-6.5398197 2.6955183 -1.3327249
-2.454036 1.0205115 -1.5761864
-6.6567116 2.7681952 -1.1844525
-2.6306863 1.0939716 -1.600794
-6.9966702 2.909567 -1.0649526
-2.767008 1.1506611 -1.5933865
-2.9307785 1.218765 -1.5943195
-7.4449124 3.095969 -0.752239
-3.082912 1.2820297 -1.5804086
-6.83821 2.8436716 -0.51787204
-3.3015256 1.3729403 -1.5919673
-13.097257 5.4464974 -0.6614847
-3.5579803 1.4795871 -1.6095263
-14.176902 5.895468 -0.35647142
-3.6622894 1.522964 -1.5488008
-3.890587 1.6179016 -1.5336183
-3.8909154 1.6180382 -1.4238805
-3.7725167 1.568802 -1.274904
-4.0696187 1.692352 -1.1538136
-6.4550986 2.6843543 -1.317172
-2.452584 1.0284537 -1.5772067
-6.692149 2.8062508 -1.1922344
-2.6306446 1.1031208 -1.6027533
-5.873871 2.4631183 -0.89516145
-2.7684674 1.1609147 -1.5962034
-7.0767007 2.9675066 -0.89738035
-2.9271495 1.2274556 -1.5943195
-7.286943 3.0556686 -0.7371905
-3.084096 1.2932687 -1.5829756
-9.952069 4.173249 -0.75462556
-3.2940674 1.381317 -1.5903403
-9.738926 4.0838704 -0.49248004
-3.5535748 1.4901375 -1.6095263
-18.278631 7.664866 -0.46017724
-3.700706 1.5518347 -1.5669878
-13.57111 5.6908383 0.0
-3.8944354 1.6330723 -1.5370386
-3.9632802 1.6619412 -1.3410323
-4.045879 1.6965777 -1.258009
-6.450731 2.7050157 -1.3179127
-2.46695 1.0430955 -1.5884286
-6.814669 2.881433 -1.2155797
-2.6273599 1.1109214 -1.6027533
-2.7650106 1.1691239 -1.5962034
-2.9251406 1.2368313 -1.5952171
-7.235659 3.0594394 -0.7329174
-3.080245 1.3024138 -1.5829756
-9.766906 4.1297216 -0.7415113
-3.2680776 1.3818347 -1.5797652
-9.689962 4.0971875 -0.4906167
-3.547438 1.4999561 -1.6087555
-14.11036 5.966255 -0.35568225
-3.6909373 1.5606316 -1.5648053
-13.546797 5.727965 0.0
-3.8514905 1.628518 -1.5219897
-4.2145715 1.7820389 -1.5461651
-4.065617 1.7190567 -1.2657268
-4.088017 1.728528 -1.1619177
-6.5114655 2.75323 -1.3319843
-2.4608624 1.0486319 -1.5863882
-2.6194353 1.1162037 -1.5998144
-7.0110974 2.9875953 -1.0710763
-2.7649841 1.1782254 -1.5980812
-6.7506504 2.8766124 -0.85812145
-2.9233193 1.2456958 -1.5961149
-7.194113 3.0655823 -0.72957337
-3.0699437 1.3081759 -1.5795529
-9.7535 4.1561985 -0.7413718
-3.274291 1.3952532 -1.584646
-7.8791604 3.3574975 -0.39940634
-3.5415378 1.5091333 -1.6079847
-13.6577015 5.819871 -0.3446803
-3.6779957 1.5672814 -1.561168
-3.8728619 1.6503185 -1.5322502
-3.9518857 1.6839924 -1.3404363
-3.9741378 1.6934745 -1.2387145
-6.570651 2.7999105 -1.3456855
-2.4689894 1.0602509 -1.5935296
-2.614706 1.1228256 -1.5988346
-2.7568157 1.1838514 -1.5952646
-6.73164 2.8907485 -0.8567276
-2.9214718 1.2545592 -1.5970125
-7.072078 3.036942 -0.7180547
-3.0646176 1.3160298 -1.5786972
-9.685028 4.1590133 -0.73704696
-3.2703824 1.4043907 -1.584646
-9.980839 4.2860427 -0.5065482
-3.5407012 1.520473 -1.6095263
-13.916981 5.976329 -0.35164356
-3.7061296 1.5915124 -1.57499
-3.9027765 1.6759579 -1.545931
-4.2115173 1.8085396 -1.548726
-3.799807 1.6317401 -1.2903935
-3.8669348 1.6605666 -1.2067404
-4.3218603 1.8559239 -1.2313086
-5.859961 2.5164258 -1.5110856
-6.528495 2.8035126 -1.3386497
-2.4628615 1.0657747 -1.5914892
-6.6019244 2.8569062 -1.1818587
-2.6163611 1.1321999 -1.6017737
-2.7470164 1.1887394 -1.5915086
-6.7709417 2.9300463 -0.86276746
-2.916317 1.2620023 -1.5961149
-3.0708852 1.3288898 -1.5838312
-9.8180275 4.2486377 -0.74806845
-3.2798624 1.4193224 -1.5911539
-9.932161 4.2980275 -0.5046849
-3.5228922 1.5244907 -1.6033596
-3.670895 1.5885371 -1.5618954
-3.8618603 1.6711752 -1.5315661
-4.1595 1.7999754 -1.5314397
-3.965198 1.7158934 -1.3481811
-3.8199368 1.6530333 -1.1935098
-4.171056 1.8049759 -1.1897753
-5.818976 2.5180943 -1.5023243
-6.003815 2.598081 -1.3905135
-6.4520974 2.7920702 -1.3245782
-2.4581118 1.0723897 -1.590469
-6.6567297 2.9041026 -1.193207
-2.6097941 1.1385636 -1.5998144
-2.7386212 1.1947665 -1.5886918
-6.7349067 2.9382086 -0.8592829
-2.9158359 1.2720791 -1.5979103
-6.797114 2.9653475 -0.6918592
-3.0735564 1.3408872 -1.5872539
-7.0440726 3.073087 -0.5374039
-3.2739618 1.4283172 -1.5903403
-3.5285025 1.5393646 -1.6079847
-17.807867 7.768961 -0.4510786
-3.6951942 1.6120864 -1.5742625
-3.893059 1.698408 -1.545931
-3.990893 1.7410896 -1.4712577
-4.0326777 1.7593188 -1.1517876
-4.3630686 1.9034572 -1.1278961
-6.119803 2.66986 -1.4192053
-6.458196 2.8174894 -1.3275406
-2.4377847 1.0716351 -1.579247
-6.773255 2.9774811 -1.2155797
-2.6050081 1.1451455 -1.5988346
-6.625016 2.9123163 -1.0170771
-2.7271914 1.1988565 -1.5839971
-6.733949 2.9602025 -0.8602121
-2.9122722 1.2802168 -1.5979103
-6.745055 2.9650846 -0.6874004
-3.068145 1.3487376 -1.5863981
-3.2682881 1.4367193 -1.5895269
-9.755441 4.2884316 -0.49695203
-3.5275688 1.5506974 -1.6095263
-13.462672 5.9181075 -0.3414308
-3.6770341 1.6164016 -1.5684427
-3.8263638 1.6820459 -1.5213057
-4.12478 1.8132278 -1.5224763
-4.544255 1.9976264 -1.5489488
-4.2380276 1.8630108 -1.3274696
-4.2863464 1.8842515 -1.225737
-6.1570954 2.7066212 -1.429601
-6.4700947 2.8442137 -1.331614
-2.4406965 1.0820767 -1.5833278
-6.612317 2.931554 -1.1883435
-2.604586 1.1547366 -1.600794
-6.7172265 2.9780655 -1.0326645
-2.7201831 1.2059864 -1.5821192
-6.7573047 2.995834 -0.86439353
-2.898433 1.285013 -1.5925239
-6.7357073 2.986259 -0.6874004
-3.0622401 1.3576365 -1.5855424
-9.920262 4.3981237 -0.7588109
-3.2704396 1.4499413 -1.5927807
-9.752879 4.3239145 -0.49751103
-3.5243669 1.5625192 -1.6102971
-14.039901 6.224555 -0.35656425
-3.7128131 1.6460664 -1.5859021
-3.881194 1.7207177 -1.545247
-4.157171 1.8430712 -1.5365615
-4.592063 2.0358796 -1.5674169
-4.4272404 1.9628059 -1.388661
-4.3847632 1.9439738 -1.2556206
-6.19685 2.7473578 -1.4408281
-6.218566 2.7569857 -1.2816229
-2.4455185 1.0923964 -1.5884286
-6.623926 2.9588623 -1.1919101
-2.598167 1.1605834 -1.5988346
-6.679951 2.9838884 -1.028211
-2.7087429 1.2099769 -1.5774245
-6.7870007 3.0317068 -0.8692719
-2.898097 1.2945601 -1.5943195
-3.0353296 1.355861 -1.5735632
-3.2680461 1.4598138 -1.5935943
-13.489321 6.0255866 -0.68896896
-3.5132496 1.5693445 -1.6072137
-13.925708 6.220518 -0.35410392
-3.725212 1.6640267 -1.593177
-3.8111675 1.7024223 -1.5192535
-3.9340277 1.7573031 -1.4558921
-4.539294 2.0276713 -1.5513318
-4.174237 1.8646029 -1.3109313
-6.1427126 2.7439075 -1.4300168
-6.029596 2.6933792 -1.2442222
-2.4467797 1.1021941 -1.5914892
-6.510232 2.9326463 -1.1731042
-2.5945077 1.1687407 -1.5988346
-6.645262 2.9934726 -1.024314
-2.709758 1.2206572 -1.5802414
-6.77382 3.051384 -0.8688073
-2.8923857 1.302925 -1.5934217
-7.075547 3.1873024 -0.7239998
-3.0046833 1.3535113 -1.5598726
-7.187194 3.2375953 -0.55121565
-3.2584457 1.4678231 -1.5911539
-13.319133 5.999833 -0.6812361
-3.5083015 1.580375 -1.6072137
-14.07199 6.3389707 -0.35832828
-3.699582 1.6665405 -1.5844473
-3.9497375 1.7792274 -1.5767128
-3.8472908 1.7330785 -1.4258009
-4.381456 1.9737023 -1.4995016
-4.5918956 2.0684984 -1.3184271
-4.7713485 2.1493363 -1.2399478
-6.1697345 2.7792633 -1.4383332
-6.3096147 2.842275 -1.3038411
-2.4436924 1.1090221 -1.5914892
-6.5217853 2.959785 -1.1766708
-2.5928218 1.1767017 -1.5998144
-6.759515 3.067674 -1.0432416
-2.701515 1.2260299 -1.5774245
-6.758037 3.0670033 -0.867878
-2.8871086 1.3102579 -1.5925239
-9.627068 4.3690567 -0.98632663
-3.0173533 1.3693669 -1.5684292
-7.3071175 3.3161926 -0.5611211
-3.2526705 1.476161 -1.5903403
-6.8549194 3.1109712 -0.35105273
-3.5089166 1.5924532 -1.6095263
-13.746531 6.2385945 -0.35048303
-3.7135751 1.6853336 -1.5924495
-3.958445 1.796463 -1.5821853
-3.8338099 1.7398998 -1.4225999
-4.142962 1.8802024 -1.4196712
-4.7548256 2.1578848 -1.4972621
-6.1940155 2.811033 -1.4458181
-6.341028 2.8777518 -1.3119879
-2.4392161 1.114701 -1.590469
-6.537349 2.987513 -1.1808859
-2.5849748 1.1813115 -1.5968753
-7.059491 3.2261276 -1.0908388
-2.699902 1.2338324 -1.5783635
-6.746371 3.0830343 -0.86741346
-2.8852942 1.3185549 -1.5934217
-6.7973886 3.1063488 -0.69724697
-3.0449972 1.3915379 -1.5846869
-6.8538275 3.1321409 -0.5269404
-3.2537804 1.4869499 -1.5927807
-13.400953 6.124122 -0.6871056
-3.5047355 1.6016344 -1.6095263
-13.599215 6.2147255 -0.34714067
-3.685428 1.6842092 -1.5822649
-3.9161227 1.7896348 -1.5671363
-4.808612 2.1974947 -1.5160056
-4.9702854 2.2713783 -1.2948209
-6.106566 2.790649 -1.427106
-6.3227468 2.8894415 -1.309766
-2.43414 1.1216382 -1.5894488
-6.5153856 3.0022535 -1.1786163
-2.584418 1.1908855 -1.5988346
-6.8766413 3.1687183 -1.0641177
-2.6895974 1.2393516 -1.5746077
-6.7781477 3.123333 -0.8727564
-2.876268 1.3253684 -1.5907286
-6.802065 3.1343539 -0.6987332
-3.0389688 1.40034 -1.5838312
-9.5076065 4.3810525 -0.73202443
-3.240796 1.4933408 -1.5887134
-3.4980106 1.611864 -1.6087555
-18.030502 8.308355 -0.46092
-3.695347 1.7027955 -1.588812
-3.826844 1.7633885 -1.5336183
-4.123153 1.8999261 -1.5340006
-4.4476476 2.0494514 -1.5280975
-4.337433 1.998665 -1.131585
-6.0462437 2.7860756 -1.415047
-6.295788 2.9010644 -1.3060629
-2.4323614 1.1295801 -1.590469
-6.5064487 3.0215724 -1.1786163
-2.584036 1.2000175 -1.600794
-6.77021 3.144062 -1.0490869
-2.695518 1.2517892 -1.5802414
-6.9634304 3.2337928 -0.897845
-2.86746 1.3316386 -1.5880355
-7.041977 3.2702696 -0.7243714
-3.039719 1.411635 -1.5863981
-3.20818 1.4898677 -1.5748844
-7.3620424 3.418907 -0.37853697
-3.4932127 1.6222359 -1.6087555
-13.069552 6.0694547 -0.33456042
-3.703796 1.72003 -1.5946319
-3.850572 1.7881924 -1.545247
-3.9611151 1.8395281 -1.4757392
-4.377478 2.0328858 -1.5060548
-4.702684 2.1839101 -1.4867879
-5.9581075 2.7669244 -1.3963351
-6.2621965 2.9081423 -1.3008788
-2.4276392 1.1356395 -1.5894488
-6.556977 3.0673263 -1.1893163
-2.5759368 1.2050124 -1.597855
-6.8026643 3.182258 -1.055489
-2.695211 1.2608083 -1.5821192
-7.1738896 3.3559155 -0.9261857
-2.866968 1.3411555 -1.5898309
-7.0670877 3.3059542 -0.7279013
-3.0341277 1.4193523 -1.5855424
-6.97025 3.260654 -0.53810143
-3.2271762 1.5096595 -1.586273
-13.16495 6.158509 -0.677789
-3.483654 1.6296388 -1.6064429
-13.119562 6.1372766 -0.33627802
-3.6466658 1.7058951 -1.57208
-3.891526 1.8204397 -1.563716
-3.89761 1.8232857 -1.4539714
-4.0086217 1.8752165 -1.3809474
-4.6617384 2.1807418 -1.4757625
-3.7994742 1.7773782 -1.0980983
-6.1134105 2.8598278 -1.2716247
-2.4260147 1.1431477 -1.590469
-2.5788708 1.2151741 -1.6017737
-6.8242083 3.2155938 -1.0602208
-2.6884844 1.2668246 -1.5802414
-7.038703 3.3166647 -0.9099246
-2.8696785 1.3522038 -1.5934217
-6.7822165 3.1958072 -0.6994763
-3.0285172 1.4270493 -1.5846869
-9.449938 4.452848 -0.7304898
-3.2328646 1.5233386 -1.5911539
-13.474812 6.3493843 -0.69465214
-3.4740813 1.6370009 -1.6041304
-17.799622 8.387252 -0.4568349
-3.6823347 1.7351307 -1.5895396
-3.830324 1.8048638 -1.5411427
-4.2624316 2.0084746 -1.4703099
-4.3269367 2.0388696 -1.3715715
-3.9892135 1.8797331 -1.0448947
-6.034283 2.843378 -1.2568125
-2.424367 1.1506556 -1.5914892
-6.4737754 3.0725904 -1.1773193
-2.5707417 1.2201282 -1.5988346
-6.9422374 3.2949324 -1.0799834
-2.6865318 1.2750846 -1.5811803
-7.1209373 3.3797472 -0.921772
-2.8675056 1.3609787 -1.5943195
-3.0245202 1.4355011 -1.5846869
-3.2236462 1.5300105 -1.5887134
-13.518393 6.416115 -0.69781977
-3.4578257 1.641157 -1.5987345
-17.678587 8.390631 -0.45432815
-3.7128189 1.7621822 -1.6048166
-3.8677156 1.8356994 -1.5582438
-4.1424155 1.9660778 -1.5493661
-4.2723293 2.0277376 -1.4756716
-4.6512237 2.207569 -1.4763138
-4.9431143 2.3461065 -1.4323901
-5.682313 2.6969457 -1.4903352
-5.904673 2.8024824 -1.389266
-6.1008935 2.8956127 -1.2723652
-2.4193904 1.1571013 -1.590469
-6.370269 3.0466542 -1.1601344
-2.5655375 1.2269977 -1.597855
-6.959232 3.3283324 -1.0841585
-2.68433 1.2838116 -1.5821192
-6.777556 3.2414439 -0.8785639
-2.8537812 1.3648536 -1.5889332
-6.946937 3.3224523 -0.7184263
-3.0169864 1.4429083 -1.5829756
-7.3182836 3.5000532 -0.5672596
-3.220741 1.5403563 -1.5895269
-3.417979 1.6346877 -1.5825468
-13.438176 6.426962 -0.34584087
-3.6991708 1.7691709 -1.6011792
-3.9114203 1.8706816 -1.578081
-3.803246 1.8189461 -1.4245206
-3.7444177 1.7908107 -1.2951595
-4.8562465 2.3225558 -1.5435693
-4.8907504 2.3390574 -1.419221
-5.7269564 2.7389824 -1.5041687
-5.9545717 2.8478422 -1.4029882
-6.1454678 2.9391406 -1.2834743
-2.414397 1.163528 -1.5894488
-6.4536505 3.1100945 -1.176995
-2.565027 1.2361186 -1.5998144
-6.7816143 3.2681444 -1.057994
-2.6773272 1.2902374 -1.5802414
-6.934333 3.3417416 -0.900168
-2.8336189 1.3655562 -1.5799562
-7.288655 3.5124936 -0.75483996
-3.017577 1.454208 -1.5855424
-3.217802 1.5506989 -1.5903403
-13.462085 6.4875464 -0.69688815
-3.4580014 1.666454 -1.6033596
-13.388427 6.4520497 -0.3450517
-3.655305 1.761537 -1.5844473
-3.8212004 1.8414841 -1.543879
-4.101659 1.9766406 -1.5384822
-4.571525 2.203075 -1.5835023
-4.894364 2.358655 -1.5579025
-5.7310762 2.761877 -1.5073966
-5.8985133 2.842567 -1.391761
-6.161508 2.9693074 -1.2886587
-2.410934 1.1706866 -1.5894488
-6.320122 3.0688863 -1.1542982
-2.5566425 1.2414389 -1.5968753
-6.7647605 3.2847912 -1.0568806
-2.6718986 1.2974042 -1.5793024
-6.7867923 3.2954893 -0.8822807
-2.848847 1.3833258 -1.5907286
-3.0083706 1.4607863 -1.5829756
-9.460038 4.593548 -0.7353728
-3.2131867 1.5602397 -1.5903403
-12.3680725 6.0056133 -0.6411744
-3.4646623 1.6823496 -1.6087555
-13.385411 6.4996066 -0.3454695
-3.6400065 1.7674923 -1.5800824
-3.910394 1.8987854 -1.5821853
-4.410398 2.1415744 -1.5298848
-4.9461436 2.4017184 -1.5766457
-5.259686 2.5539663 -1.5306517
-5.70535 2.770369 -1.5027853
-5.7334304 2.7840042 -1.3547527
-6.09963 2.961821 -1.2775495
-2.4094064 1.1777495 -1.590469
-6.448591 3.152156 -1.1792647
-2.5549502 1.2488933 -1.597855
-6.80596 3.3268425 -1.0646744
-2.6700795 1.3051699 -1.5802414
-7.0351334 3.4388654 -0.91573215
-2.8564556 1.3962729 -1.5970125
-7.2760806 3.5566437 -0.7555831
-3.0077844 1.4702445 -1.5846869
-9.55015 4.6682386 -0.74332494
-3.2041671 1.5662389 -1.5878999
-3.461904 1.6922241 -1.6095263
-13.434815 6.567114 -0.3471871
-3.6604733 1.7892874 -1.5909945
-13.646867 6.670768 0.0
-3.9070983 1.909841 -1.5828692
-4.353319 2.1279595 -1.5120122
-4.8932047 2.3918626 -1.5617614
-5.346848 2.6136096 -1.558003
-5.638632 2.7562373 -1.4871074
